136 136 136 140 142 143 148 138 137 139 142 141 139 134 136 137 138 137 140 143 141 138 131 126.333000183105 126.337997436523 122.110000610352 113.78099822998 113.781997680664 111.109001159668 103 103 103 112.892997741699 108.320999145508 120 124.21199798584 127.21199798584 131 131.210998535156 133 132.104995727539 131 139 141.89599609375 142.207000732422 145.897003173828 143.102996826172 142.102996826172 144 142.102005004883 143.102005004883 148 150 151.203994750977 156.695999145508 159 163.404998779297 166.201995849609 171.100997924805 175.100997924805 181 176 178 180 182 184 186 181 182 206
142 142 142 149 147 146 144 145 137 141 139 139 136 136 132 135 134 137 139 137 140 133 134 125.250999450684 140 122 117.124000549316 119 115.246002197266 116.386001586914 113.877998352051 103 103 105 116.878997802734 120.121002197266 123 122.23999786377 123.880996704102 121 121.237998962402 123.119003295898 127.236999511719 131.88200378418 133.88200378418 136.11799621582 138.647994995117 137.882995605469 138.766006469727 138 142.117004394531 140.231994628906 145.884002685547 147.884002685547 150.231002807617 155.115005493164 160.115005493164 162.654998779297 169.770004272461 169.884994506836 173.770004272461 170.884994506836 173 177 178 180 184 177 177 181
139 139 139 115 140 151 145 141 141 143 143 136 134 134 131 133 132 137 137 145 136 135 132 126.28099822998 125.28099822998 123 124.721000671387 120 121.861000061035 121.138000488281 113 112.274002075195 113.411003112793 113 105 107 114.13500213623 114.86499786377 117 114.268997192383 114 119.134002685547 123.133003234863 127.133003234863 128.132995605469 129 131.602005004883 130.264999389648 131.86799621582 132.604995727539 134 136.261993408203 139.130996704102 144 146.130996704102 152.477005004883 152.261001586914 153.261001586914 156.130004882812 162.869995117188 164.130004882812 165.130004882812 169 169 176 220 197 176 168 171
135 135 135 128 137 145 134 134 138 136 142 139 136 134 131 132 129 136 136 136 134 136 130 126 118.625999450684 123.84400177002 122.15599822998 121.845001220703 123.69100189209 116.846000671387 120.846000671387 115.846000671387 117.458999633789 114.305000305176 118.152000427246 116.847999572754 115 107 107 109.150001525879 114.849998474121 117.150001525879 119.299003601074 122 120.297996520996 123.850997924805 123 124.148002624512 123.148002624512 126 127.705001831055 128.589004516602 134.559005737305 137.705993652344 143 142.85400390625 149 148 150.292007446289 156.291000366211 158.14599609375 159.145004272461 165 172 176 183 181 177 168 156
129 129 129 137 140 131 140 136 137 138 140 137 134 129 134 129 134 135 128 132 130 127 125 124 123.172996520996 122.345001220703 121.171997070312 122.828002929688 121 121.658996582031 121.830001831055 121.830001831055 119.661003112793 122.168998718262 121.66300201416 113 120.167999267578 122.167999267578 117 112 109.166000366211 114.501998901367 116 116.661003112793 118.834999084473 118 118.329002380371 118 119.164001464844 119.164001464844 120.83699798584 123 123.16300201416 128.67399597168 133.488006591797 138 140.324996948242 144 147.837997436523 147.837997436523 153.837997436523 155.162002563477 163 177 223 203 181 177 174 156
157 157 157 147 145 141 131 125 129 140 140 136 132 131 128 131 131 135 131 131 129 127 124 124 124.190002441406 124 124.810997009277 122.810997009277 122.434997558594 124.624000549316 125.186996459961 123 120.626998901367 121.814002990723 119.628997802734 118.815002441406 115.815002441406 128.524993896484 115.81600189209 112 112 115.817001342773 111 111.546997070312 115 115.181999206543 116.819000244141 114.542999267578 115 114.180000305176 114.180000305176 117.459999084473 116.180000305176 118.180000305176 123 129.358001708984 133.641998291016 138.714996337891 140 142.643005371094 149.643005371094 153.356994628906 164 217 212 187 180 169 161 150
142 142 142 150 142 141 138 131 132 137 136 134 134 130 126 131 129 131 131 127 129 127 123 124.791999816895 125.583999633789 124.792999267578 124.792999267578 122.58699798584 121 122 120.205001831055 121.204002380371 122.204002380371 120.406997680664 119.796997070312 119 119 119.797996520996 120.202003479004 123.597999572754 115.601997375488 123.401000976562 116.400001525879 114.600997924805 114 112.198997497559 108 112.602996826172 111 112 108.197998046875 110.196998596191 109 113.803001403809 116.392997741699 126 127 130.804000854492 134.804000854492 139 147 155 200 156 156 161 167 166 160 147
153 153 153 151 149 141 128 133 133 135 136 133 131 131 129 124 121 124 125 125 124 124 126 124 123.774002075195 122.549003601074 122 121.551002502441 119.448997497559 118.776000976562 121.777000427246 121.554000854492 123.77799987793 124 123.556999206543 120 120.220001220703 119.779998779297 120.779998779297 119 118.78099822998 115.78099822998 113 113.218002319336 113.781997680664 125.522003173828 112 111 110 107.783996582031 107.216003417969 104 108.430999755859 111.785003662109 114.430000305176 116.785003662109 120.859001159668 123.786003112793 130 132.427993774414 139.572006225586 164 156 150 149 149 146 155 148 143
163 163 163 166 143 136 139 137 136 137 134 132 129 129 125 121 122 124 124 124 125 122 122 122.753997802734 124 121.244003295898 121.244003295898 118.513000488281 117.514999389648 116.485000610352 119.515998840332 120 122.240997314453 120.240997314453 119.519996643066 120 119.478996276855 120.761001586914 121.238998413086 121.524002075195 115 117.710998535156 118.290000915527 112.236000061035 114.236000061035 111 108 113 112.470001220703 109.235000610352 108 108.169998168945 109.531997680664 110.765998840332 110.233001708984 112.467002868652 114.766998291016 116.766998291016 124.302001953125 130 130.768005371094 132.464004516602 134 139 141 139 145 136 138 133
162 162 162 164 141 138 139 142 141 136 135 128 129 126 123 121 123 120 118 119 122 118 122 123 120 118.736000061035 117.790000915527 117 116.737998962402 116.737998962402 118.261001586914 119.261001586914 121.26000213623 120.73999786377 117.740997314453 121.259002685547 117.258003234863 117 119.258003234863 119.485000610352 119.74299621582 117.25700378418 115.255996704102 112.744003295898 113 112 114 111.254997253418 112.253997802734 109.746002197266 107.985000610352 108 106.759002685547 106 109.252998352051 107.504997253418 110 109.008003234863 114.755996704102 116.761001586914 120.754997253418 123.753997802734 129 129 128 133 131 130 127 129
161 161 161 150 149 143 138 144 142 141 135 130 130 125 122 116 119 118 118 119 118 118 120 123.00700378418 118.283996582031 116 116 117 116 117.436996459961 117 117.841003417969 118.720001220703 119.720001220703 115.278999328613 119 116.72200012207 116.72200012207 118.167999267578 116.722999572754 118 117.276000976562 115.275001525879 114 111.724998474121 111 113.725997924805 110.725997924805 110.820999145508 109.453002929688 108.907997131348 107 105 102.727996826172 106.184997558594 107 109 107.271003723145 107.541999816895 111.728996276855 112.728996276855 118 121 121 122 123 123 124 122 119
165 165 165 159 140 142 140 140 139 141 139 132 130 129 122 120 118 117 117 112 115 115 114 119.305000305176 114 113.607002258301 115.089996337891 115.092002868652 115 116.698997497559 117 117.698997497559 116.699996948242 112.898002624512 114.597999572754 113.597999572754 116 114 118.918998718262 113.296997070312 114.593002319336 115.592002868652 114.817001342773 112.294998168945 113 111.884002685547 112.411003112793 109.293998718262 108 110.707000732422 107.707000732422 105.292999267578 103.708000183105 104 103.291999816895 104.875 109.125 106.583000183105 102.416999816895 105.291000366211 105.291000366211 106.127998352051 109 111 113 114 116 117 115 114
161 161 161 161 154 146 142 144 142 143 137 134 130 124 120 117 116 115 115 115 115 114 113 111.976997375488 111.324996948242 112.676002502441 110.323997497559 112.677001953125 112.677001953125 114.678001403809 116.679000854492 111.605003356934 114.320999145508 114.680000305176 112.361000061035 114 111.680999755859 110.318000793457 110.318000793457 112.731002807617 115.682998657227 114.633003234863 112.68399810791 111.31600189209 110.315002441406 111.370002746582 110 108.684997558594 107.627998352051 108 105 105.686996459961 101.939002990723 102.686996459961 102.375 104.750999450684 102.311996459961 102.935997009277 103.130996704102 100 98.6889038085938 101.310997009277 103 101 106 106 103 108 103 108
157 157 157 156 151 149 143 141 139 135 133 130 130 123 119 115 115 114 112 112 113 111 110 110.615997314453 107.69100189209 109.309997558594 107 108.34400177002 108.656997680664 110 112.342002868652 116.291000366211 108.341003417969 108.339996337891 106.680000305176 103.338996887207 107.983001708984 107 107.337997436523 108.662002563477 109 109.66300201416 110.66300201416 108.672996520996 113.328002929688 110 110.665000915527 107.330001831055 108 110.333999633789 104 101.666000366211 101.666000366211 103.333999633789 100.666000366211 106.004997253418 100.332000732422 100.335998535156 98.3320999145508 97.3317031860352 94.6682968139648 91.6746978759766 97 98 100 101 100 103 98 103
156 156 156 157 157 151 143 137 132 128 128 125 122 120 118 118 114 113 113 108 110 110 109 106.264999389648 106.533996582031 103.634002685547 102.63500213623 105.269996643066 102 104.727996826172 104.274002075195 104.450996398926 104.361999511719 108 105.916999816895 103.361000061035 103.081001281738 106.360000610352 103.640998840332 106 104 104 109.430000305176 109.429000854492 108 107 106.71199798584 106.068000793457 103.710998535156 103 102.290000915527 101.646003723145 100.291000366211 102.646003723145 101.122001647949 96.7073974609375 99 97.6466979980469 95.9412002563477 92 92 95 90 91 94 96 95 94 96 93
158 158 158 148 160 157 138 126 132 130 124 119 117 116 115 116 111 112 114 107 110 106 104 102.223999023438 103.388000488281 101.612998962402 100 105.386001586914 101.61499786377 102.38500213623 101.231002807617 99.1516036987305 99.3831024169922 101.616996765137 100.235000610352 102.855003356934 103.475997924805 101.619003295898 102.620002746582 107.620002746582 106.379997253418 103.516998291016 106 110.513000488281 108.622001647949 107.133003234863 105.376998901367 102.753997802734 103.128997802734 101.751998901367 101.375999450684 103.624000549316 100 98 97 96.2511978149414 90.8721008300781 95.2519989013672 98 92.3735961914062 90.6264038085938 88.7464981079102 88 87 88 89 91 89 91 90
151 151 151 144 158 153 138 132 129 127 122 119 114 115 113 113 113 112 110 107 107 102 104 103.180000305176 102 97.8177032470703 99.4080963134766 97 99.4068984985352 98.1871032714844 100.59400177002 96.5947036743164 98.190299987793 100.596000671387 98.1927032470703 97.8065032958984 99.5970993041992 101 100.803001403809 101 99.1981964111328 103 107.400001525879 104.799003601074 106.399002075195 108.399002075195 105.398002624512 103.398002624512 100.398002624512 100.601997375488 104 98 97 99.6035003662109 96 94.7922973632812 95 91.2085037231445 88.3953018188477 89 89.7899017333984 92 89 86 82 86 84 86 87 83
144 144 144 149 147 148 137 129 124 122 124 119 118 116 112 111 110 108 113 107 104 101 101 99.5688018798828 101 99.5699996948242 95.5703964233398 95.4288024902344 96 94.8553009033203 99.0093994140625 96.573600769043 97.4260025024414 97.2769012451172 96 96.7266998291016 97.4240036010742 100 99 97.7314987182617 98.1551971435547 98.8440017700195 100.264999389648 101.420997619629 104.420997619629 105.580001831055 104 101.580001831055 98.5808029174805 96.4188003540039 97.8376007080078 96.4184036254883 95 90.0737991333008 93.8352966308594 92 91.4171981811523 90.4168014526367 89 88.4163970947266 85.5836029052734 86.2481002807617 85 84 80 81 83 79 78 81
149 149 149 144 147 147 134 127 122 123 122 116 114 114 113 111 112 109 102 106 102 104 99 98.6399993896484 98 94 92.902702331543 92.0980987548828 90 92 90.8977966308594 92.5514984130859 93.4480972290039 93.4473037719727 90 93.4465026855469 91.8921966552734 96 96.4449005126953 94.7776031494141 95.3322982788086 98.5562973022461 98.5567016601562 99.4429016113281 99 102.115997314453 99.7667007446289 100.883003234863 103.11799621582 96 97.4404983520508 95 92.5598983764648 90 89.1214981079102 85.8785018920898 87 88.4389038085938 88.8768997192383 84.4384994506836 85 82.8760986328125 82 80 80 80 79 74 72 73
147 147 147 153 146 143 135 126 119 120 120 120 116 111 108 112 107 106 103 105 103 100 97 94.9495010375977 97.0522003173828 96.0530014038086 96.7455978393555 92.527702331543 92.0561981201172 90.9421997070312 86.470703125 89 88.0610961914062 91.061897277832 91.0626983642578 89.532096862793 93 93.5328979492188 93.4666976928711 94.1350021362305 96.4657974243164 93.5345993041992 91.6048965454102 96.6061019897461 96 95.9276962280273 99.5365982055664 98.4629974365234 96 93 96.4621963500977 94.0764007568359 91.0772018432617 90.5385971069336 87.5390014648438 87.0787963867188 90.7636032104492 86.6194000244141 84.5398025512695 85.4598007202148 80.9196014404297 80.5406036376953 82 79 77 76 77 69 74 67
155 155 155 142 139 137 132 125 119 122 125 118 116 115 111 105 107 102 101 100 100 98 98 91.9931030273438 94.4961013793945 93.0093002319336 87 89.9882965087891 86.9748992919922 85 85 84 85.50830078125 89 91.5094985961914 89.0397033691406 86 90.0222015380859 91 89 91.4629974365234 91.4872970581055 94.4868011474609 92.4592971801758 95.5139007568359 94.456901550293 95 97 93 95 93.515998840332 90.0327987670898 90.0327987670898 87.5167999267578 85.5171966552734 86.4828033447266 84.0352020263672 84.4823989868164 82.963996887207 80.5179977416992 81.4448013305664 80 79 77 76 74 74 76 66 69
145 145 145 141 140 136 129 125 116 123 118 116 114 116 112 108 108 102 102 102 97 99 97 95.03759765625 90 90.5176010131836 93.4832000732422 88.5491027832031 86 80 84.4851989746094 80 82.4051971435547 87 89.4629974365234 87.4880981445312 90.5114974975586 86.488899230957 88.4893035888672 90.0205993652344 89.5297012329102 90.4714965820312 89.5272979736328 93.0174026489258 90.49169921875 98.4132995605469 96 94.5071029663086 93.5066986083984 95 91.5063018798828 89 89.494499206543 86 86.4949035644531 82.4953994750977 81.5139007568359 81.4957962036133 81 80.5037994384766 79 79.4965972900391 74 77 70 70 69 69 66 62
154 154 154 139 137 134 129 121 118 122 116 115 114 113 109 110 105 103 105 96 96 97 94 92.9196014404297 91.0795974731445 88.4609985351562 90.0772018432617 89.5378036499023 78 80.5370025634766 80 80 83.0707015991211 87 85.5341033935547 87.5336990356445 87.9332962036133 88 86.532096862793 87 88.4686965942383 87.5308990478516 89.6524963378906 89.5300979614258 89.9405975341797 89 87.9421997070312 90.4710998535156 90 89.4719009399414 89.5830993652344 88 89.4181976318359 87.4730987548828 85.0529022216797 84.473503112793 83.4738998413086 83 80.9486999511719 79 85.7978973388672 77.5252990722656 74 74 72 71 70 66 58 62
153 153 145 137 131 134 125 122 124 122 118 116 113 114 111 108 106 103 97 104 98 94 91 96 92.561897277832 91 89.5606994628906 87.439697265625 83.678596496582 78 80 83.326301574707 85.442497253418 86.5570983886719 86.5562973022461 87.4440994262695 86 89.1101989746094 86.8906021118164 84 84.230598449707 84.1070022583008 85.893798828125 85.4473037719727 85.1045989990234 87.5519027709961 86.5514984130859 87.4488983154297 87.8986968994141 87 84.7512969970703 86.4501037597656 85.5494995117188 83.0988998413086 85.5491027832031 82.902702331543 82.548698425293 77 80 79 77.5478973388672 75.4525985717773 74 71 72 67 64 65 64 61
158 158 143 136 132 129 125 123 125 123 118 116 114 113 111 108 106 102 102 99 96 96 91.4152984619141 91.5839996337891 92 84 88.4176025390625 85.4184036254883 85.1623001098633 86.1606979370117 86.1598968505859 82.1591033935547 87.8424987792969 84.4216003417969 87.1558990478516 84.4224014282227 86.154296875 82.4235992431641 86.727897644043 85.1511001586914 80.6993026733398 84.2757034301758 87.7025985717773 83.8520965576172 87.279296875 87.7194976806641 85.7089004516602 79.4365997314453 85.4275970458984 82.2841033935547 84.1430969238281 84 85.5711975097656 82.42919921875 82 80.5703964233398 80.4300994873047 80.4300994873047 79.1390991210938 79.5696029663086 75.861701965332 74.2766036987305 71 71 70 70 63 61 62 60
153 153 144 138 132 130 119 126 125 122 119 116 116 111 108 110 106 106 101 101 99 97 95.393798828125 92 92 90.3953018188477 90 88 82.6026992797852 84.2044982910156 83.6018981933594 84.404296875 85 84.2005996704102 86.4004974365234 88 86.4012985229492 85.5982971191406 83.402099609375 82.3899993896484 84.4029006958008 82.7901000976562 83.8074035644531 86.4040985107422 85 85.7610015869141 83.1894989013672 83 83 83.1871032714844 84 83 83 83.0363006591797 80.5923004150391 82 80.2241973876953 80.4085006713867 79 77 77.4088973999023 74.8184967041016 73 67 67 67 65 61 58 65
155 155 144 138 131 125 126 131 123 123 118 116 115 109 108 107 105 104 101 99 99 94 95 94.3732986450195 90.1209030151367 91.7489013671875 89 90 86.3759994506836 85.4928970336914 82 84.3776016235352 86.3784027099609 87.1362991333008 85 85.7591018676758 85.859001159668 84.8578033447266 83 85 89.5628967285156 85.6176986694336 84 84.3831024169922 87.3834991455078 85 85 84.7685012817383 83 80.7701034545898 83.2291030883789 83.6141967773438 83.6141967773438 82.3862991333008 82 81.7733001708984 78.1611022949219 80 76 75.22509765625 74.6121978759766 76.3878021240234 71 76 78 64 66 64 62 59
153 153 142 135 133 133 132 131 125 122 117 116 112 111 110 107 105 104 101 103 101 95 95.4055023193359 92 94 92 92 90 88 84 83.3560028076172 81.7822036743164 88 83 85.3580017089844 84.283203125 83.3588027954102 84.6408004760742 82.0786972045898 86.0798034667969 79 83.0821990966797 86.2778015136719 86 81.4476013183594 84.3622970581055 80.7253036499023 82.3630981445312 83.3635025024414 82 85 80.7285003662109 82 80 84.904899597168 81.3654022216797 82.7307968139648 77.0973968505859 77.7315979003906 77.6337966918945 76.3662033081055 73 73 70 69 65 65 63 60 59
151 151 143 138 139 137 139 128 123 123 120 116 114 113 108 107 106 106 104 103 102 99 92.3471984863281 96.668701171875 93.6633987426758 91.3349990844727 88.3329010009766 90.6672973632812 85 85.3348007202148 86.3296966552734 87.6710968017578 86.3274002075195 85.3367004394531 84.3370971679688 85.6624984741211 87.6912002563477 85.3386001586914 83.3219985961914 82.9817962646484 85.3397979736328 83 83.3405990600586 84 85.3413009643555 82.9748992919922 83 81.6578979492188 82 80.657096862793 81.9701995849609 83.0927963256836 79.3435974121094 81.311897277832 81 79.6556015014648 77.6895980834961 77.6207962036133 81 82.3096008300781 76.3455963134766 75.727897644043 75 74 67 65 61 65 60 57
152 152 142 137 138 138 148 136 125 120 119 115 113 114 113 111 108 109 106 99 101 100 101 94 91 92 90.3753967285156 88.6873016357422 88 90.6862030029297 86 85 85.315299987793 85.0529022216797 83.3164978027344 84.3168029785156 84.9516983032227 84.3175964355469 84.318000793457 87.3183975219727 82 81 84.3195037841797 82.2795028686523 84 75.3206024169922 79.3580017089844 80.6427993774414 80.3564987182617 78 84.3221969604492 79.6774978637695 81.3228988647461 80.6771011352539 82.353401184082 79 79 76 79.3240966796875 78.3510971069336 79.3510971069336 79.9745025634766 75 73 71 70 66 62 57 59
153 153 144 141 140 144 138 132 124 123 121 116 115 114 113 110 109 107 103 103 103 101 99.4490966796875 96 94.418098449707 94 89.1681976318359 89.4151992797852 87.7071990966797 89.7064971923828 88.4122009277344 87.2942962646484 86.0652008056641 84.4092025756836 80 81 86.1092987060547 87.1082000732422 84.1071014404297 81 83.2984008789062 83.2987976074219 82.8973999023438 84.2994995117188 81 84.6005020141602 83.6013031005859 82.8038024902344 76.6989974975586 80 81.3018035888672 83 79.6978988647461 80.3024978637695 79.6050033569336 80.3942031860352 81.6967010498047 81.3935012817383 78.303596496582 78.6072998046875 77.6959991455078 74.3040008544922 78 75 70 67 63 59 59 55
150 150 144 142 140 148 141 132 129 120 116 118 115 116 114 107 110 105 105 103 103 100 101.459999084473 97.1877975463867 92.5421981811523 94.3591003417969 92 88.7275009155273 92 92.2735977172852 87 89 83 85.1725006103516 85 86.1703033447266 81 81.3864974975586 84.5552978515625 88.165901184082 86.2783966064453 84.2788009643555 83.7209014892578 84.2795028686523 85.279899597168 81 82.7193984985352 82.157096862793 79.2813034057617 79.2817001342773 74.845100402832 77.7434005737305 77.2824020385742 81 81.1516036987305 81.283203125 73 79 77.4328994750977 77.7161026000977 78 79.2838973999023 76 69 68 68 64 63 56 53
149 149 145 143 144 148 141 129 124 125 116 119 118 112 111 105 108 107 110 103 106 101 101.749000549316 97.2509002685547 97.2516021728516 96.7559967041016 95.2527008056641 91.2530975341797 89 93.7459030151367 91 92 87.2555999755859 85.0236968994141 86 84.7434005737305 81.4852981567383 85.257698059082 83.2581024169922 85.2247009277344 85.2587966918945 85.2591018676758 87.2594985961914 84.2599029541016 85 83.2605972290039 82.2609024047852 84.4781036376953 82.2612991333008 78.5233001708984 77.7379989624023 78 73.5743026733398 76 77.7372970581055 77 80.2634963989258 77 77.736198425293 81.9447021484375 78 77 73 70 68 64 61 56 57 53
151 151 144 142 140 147 140 129 124 122 121 117 116 115 111 105 110 111 108 105 103 105 99.7680969238281 101.464996337891 101 98 94.0640029907227 93.2347030639648 91 90.4708023071289 93 91 91 91.2375030517578 85.475700378418 83.714599609375 84.1927032470703 86.761100769043 86.7606964111328 85.5624008178711 81.9598007202148 84.7596969604492 85.2406005859375 85.5179977416992 84.7585983276367 86.24169921875 86.2421035766602 86.5151977539062 84 83.7568969726562 79 78.5130004882812 76.2437973022461 81.7562026977539 78.2442016601562 80.2664031982422 81.7117004394531 78 80.0204010009766 77.2452011108398 74.4905014038086 71.7547988891602 73 65 62 60 56 53 54 56
150 150 145 143 143 146 140 130 127 125 125 119 117 114 113 112 110 109 104 107 101 104 101.639999389648 102.786003112793 100.786003112793 93.6442031860352 98.3536987304688 95.4315032958984 91.2161026000977 88 93.4343032836914 92.4356002807617 93.1274032592773 93.2184982299805 90 87 89 86 86.8973007202148 85.7790985107422 87 88.2216033935547 83.6657028198242 82 87.7773971557617 85.5541000366211 83.2232971191406 86.5533981323242 88.7763977050781 85 77.551399230957 78 78.2247009277344 77.4499969482422 76.7750015258789 77.3239974975586 75.774299621582 79 76 73.2259979248047 72.2264022827148 71.7735977172852 68 64 61 60 58 55 51 50
151 151 146 142 142 142 136 132 126 121 120 122 119 116 112 112 110 111 111 107 103 101 103.194999694824 101.195999145508 98.3927993774414 99 97.8025970458984 98.4058990478516 96.0082015991211 93 95.8006973266602 94.8003005981445 90.4000015258789 88 87 88 90.1933975219727 85.4039993286133 88 86.7973022460938 88.5940017700195 88 88.4073028564453 88.7959976196289 87.5913009643555 86.2046966552734 87.3850021362305 87 86.4113006591797 83.2060012817383 82.6179962158203 82.3809967041016 79.8266983032227 79.2067031860352 78.7580032348633 76.7929992675781 76.6220016479492 77 73.4152984619141 68.5839996337891 69.5839996337891 68 67 63 59 58 57 55 52 48
150 150 147 146 143 133 136 136 127 123 122 114 116 114 111 110 110 108 107 108 105 104 105.178001403809 101.356002807617 100.820999145508 100.179000854492 97 98.6397018432617 98.8191986083984 95.1810989379883 95 91.3641967773438 94.8175964355469 93.1827011108398 89 90.4498977661133 88.6320037841797 89.6313018798828 90.8153991699219 90.8150024414062 87.814697265625 87.4431991577148 87.1858978271484 86 85.1865997314453 86.3738021850586 87 83.8127975463867 85.1875991821289 84.2484970092773 81.3764038085938 82.6235961914062 78.1884994506836 77.8110961914062 82.8110961914062 86.0541000366211 77.8105010986328 74.3789978027344 69.3796997070312 71.3796997070312 69.8102035522461 65.8097991943359 65 58 61 59 58 54 51 50
150.098007202148 150.098007202148 148.630996704102 147.729995727539 143.322998046875 135 133 126.793998718262 126.829002380371 125 123 117.918998718262 114 112.962997436523 115.935997009277 111 110.980003356934 108 102 109.964996337891 106.047996520996 106 102 105 105 100 101 100.83699798584 100.671997070312 100 95.1648025512695 95 94 91.1660003662109 91.6673965454102 92.1666030883789 93.8330993652344 91.8328018188477 88.5026016235352 86.1679000854492 88.6636962890625 89.6630020141602 88.1688003540039 87.1690979003906 89.1694030761719 87.5092010498047 87.8300018310547 85.6593017578125 87 85.3413009643555 83 80 82.9702987670898 77.3432006835938 83.3123016357422 79 76.3109970092773 74.654899597168 88.9646987915039 69.8274993896484 65.1728973388672 64.1728973388672 60 60 58 59 55 55 52 55
151.449005126953 151.449005126953 148.593994140625 147 144 136.438995361328 137 129 127 126.450996398926 122.679000854492 122 117 116.779998779297 115.958000183105 113 111.013999938965 113 110.046997070312 109 104.146003723145 105.064002990723 104.999000549316 106.000999450684 102 104.001998901367 102.997001647949 101.001998901367 98.0056991577148 98.9980010986328 95 95 93.0022964477539 92.9974975585938 95.9973983764648 96.004997253418 96.0052032470703 91.0053024291992 90.5605010986328 89.5338973999023 88.5071029663086 89.5186996459961 89.6348037719727 92.5699005126953 90.5948028564453 87.3806991577148 89 86 81.938102722168 80 79.8173980712891 80.2384033203125 78.5259017944336 76.7788009643555 77.4142990112305 74.0274963378906 73.2669982910156 70.8258972167969 67.3331985473633 65.161003112793 65.3147964477539 61.3124008178711 55 61 59 63 57 60 58 53
154.658004760742 154.658004760742 148.809005737305 144.276992797852 141.360992431641 137.557998657227 135.759994506836 130.406005859375 121.179000854492 122.408996582031 122.106002807617 120.319000244141 115.279998779297 116 111.041000366211 113.027000427246 109.00700378418 113.014999389648 105 110.070999145508 107.950996398926 108.065002441406 107.997001647949 104.008003234863 108.004997253418 103.977996826172 103.018997192383 102.013999938965 98 96 98 96.0297012329102 94.0319976806641 96.9776000976562 93.0238037109375 97.9495010375977 95.986701965332 97 95.4481964111328 94 94 94.0577011108398 91.7770004272461 89.8376007080078 88.967399597168 89.6315994262695 89.344596862793 83.6781005859375 87.4011993408203 83.4438018798828 81.7415008544922 78.239501953125 74 73.2059020996094 72.8080978393555 73.1788024902344 70.503303527832 68.841796875 69 68.5655975341797 62.2826995849609 63 58 61 58 60 63 61 58 58
158.445007324219 158.445007324219 137 144.639999389648 139.953002929688 138.27799987793 134.522994995117 130.606002807617 126.83699798584 123.86499786377 122.580001831055 123.079002380371 117 115 114.980003356934 120.947998046875 114.99299621582 114.014999389648 118 110 111 107.130996704102 107.99299621582 107.991996765137 107 110.942001342773 99 103.029998779297 102.967002868652 99.0366973876953 100 98.0655975341797 99.0236968994141 97.0510025024414 99 91.1726989746094 96.0305023193359 95.0322036743164 102 98.5156021118164 95.535400390625 97.4609985351562 93.2630004882812 90.4083023071289 90.2348022460938 90 89.3343963623047 87 83.5733032226562 83.5305023193359 77.9811019897461 77.225700378418 76.4166030883789 74.8477020263672 70.532600402832 69.4926986694336 64.9166030883789 65.7135009765625 66.3237991333008 66.4810028076172 58.2519989013672 61.8751983642578 56 65 56 65 63 61 59 55
152 152 142.598999023438 143 140 137.276000976562 134.473999023438 128 125.332000732422 125.134002685547 121 119.078002929688 119.055000305176 118.035003662109 113.980003356934 117 112.991996765137 108 112 112.963996887207 112.050003051758 110.802001953125 112 111 109.983001708984 108 103.976997375488 103 102 102.063003540039 99.0699005126953 103.922996520996 100.958000183105 104.911003112793 99.0960006713867 98.9486999511719 97.1092987060547 98.9421005249023 100.464996337891 102.49299621582 99.0420989990234 98.0964965820312 97 91.6019973754883 91 87.0376968383789 90.3940963745117 87.2976989746094 85.2744979858398 81.7474975585938 78.6965026855469 77 73.6102981567383 72.4656982421875 71.5092010498047 64.3000030517578 63.861499786377 68.7429962158203 63.8791999816895 64 56.5567016601562 62 56 55 57 60 59 54 62 51
145.32600402832 145.32600402832 144.600997924805 142 140.686004638672 137.725006103516 129.235992431641 129.199005126953 127.505996704102 126.399002075195 125.102996826172 120.846000671387 121.945999145508 120 118.96199798584 117.984001159668 118.953002929688 112.03099822998 112.974998474121 111.037002563477 111.949996948242 111.06600189209 109.035003662109 111 111.949996948242 109.971000671387 106.033996582031 104.03800201416 104 101.952003479004 100.946998596191 102.942001342773 103.748001098633 111.931999206543 114 103.078002929688 102.916999816895 98 100.055000305176 102.499000549316 105.470001220703 99.7863006591797 97.5848999023438 91.2233963012695 90 86.3354034423828 88.7586975097656 89.7136993408203 84.7372970581055 77.481201171875 76.6598968505859 75.5998001098633 73.1818008422852 75.3396987915039 68.3002014160156 67 69.8751983642578 67.8852005004883 62.1067008972168 64.4947967529297 60.1944007873535 58.0959014892578 65 62 60 54 57 55 52 51
144.880004882812 144.880004882812 148.397994995117 138.645004272461 138.375 133.182006835938 131.531997680664 127.593002319336 128.837005615234 123.13200378418 125 125 121.158996582031 120.100997924805 120.981002807617 120 118.024002075195 114.96900177002 113.949996948242 111.037002563477 112.152000427246 114.799003601074 114.952003479004 111 109.035003662109 110.959999084473 105.093002319336 106.106002807617 105.059997558594 105.86799621582 99 104 104.912002563477 117 127.898002624512 113.110000610352 105.234001159668 105.124000549316 108.519996643066 110.527000427246 105.074996948242 100.43399810791 100 92.6210021972656 88.7033004760742 86 85.2998962402344 82.8271026611328 81.2518005371094 80.2291030883789 77.2081985473633 75.8116989135742 73.1699981689453 75.8473968505859 72.7247009277344 71 68.1119995117188 66.4069976806641 62 61.9123001098633 65.7477035522461 63.9174003601074 66 67 59 63 56 53 52 54
146.438995361328 146.438995361328 144.39599609375 139.940002441406 139.688995361328 134.727996826172 129.533996582031 128 122 127 127.899002075195 128.149993896484 126 119.133003234863 118.982002258301 121.00700378418 114.008003234863 114.968002319336 115.974998474121 115 118.051002502441 117.932998657227 113.03099822998 114.962997436523 111.044998168945 110 108.121002197266 106.069000244141 106 105.171997070312 107.904998779297 105.791000366211 106.113998413086 113 135 122.857002258301 111.694999694824 106 111.513000488281 109.031997680664 117.361000061035 99 102.601997375488 91.1104965209961 89.3427963256836 88.3162002563477 86.1287002563477 82.0630035400391 82.7245025634766 79 73.1855010986328 76.6455993652344 74.6826019287109 73.5755996704102 73.8739013671875 74.1121978759766 69.0999984741211 64.8202972412109 62 63.0756988525391 65.8563995361328 63.140998840332 68 66 63 59 49 56 54 51
145 145 147.212005615234 137.945999145508 138.619003295898 133.729995727539 131.307006835938 128.195007324219 128.677993774414 126.870002746582 123 128.850997924805 124.896003723145 124.065002441406 115 118.99299621582 114.025001525879 119.952003479004 116 123.886001586914 119.947998046875 120.796997070312 116.03800201416 117 115.888999938965 112 109.925003051758 106 106.096000671387 106.892997741699 111 114.130996704102 107.858001708984 107.154998779297 124.833000183105 126.820999145508 113 103.204002380371 100.013999938965 106.523002624512 100 100.581001281738 96.6100006103516 97 94 87.6147994995117 84.3124008178711 85.230598449707 76.2322998046875 80 79.2508010864258 75.8330993652344 75.2963027954102 75.130500793457 75.1151962280273 68.6056976318359 64.4446029663086 61.3922996520996 65.8595962524414 65.1281967163086 65.3019027709961 61.1176986694336 70 63 62 52 60 56 56 53
146 146 145.606994628906 144.350006103516 135.617004394531 130.731002807617 133 129.613006591797 130.160003662109 129.128997802734 128.199005126953 126 128.050994873047 122.031997680664 122.946998596191 123.944000244141 120.009002685547 119.015998840332 116 122 118.103996276855 114.205001831055 115.818000793457 116.944999694824 114.06600189209 113 110.089996337891 118.977996826172 106.575996398926 107.386001586914 112.285003662109 114.156997680664 106 101 108 118 112.689002990723 102.754997253418 100.496002197266 106.587997436523 104.44100189209 100.236000061035 97.6171035766602 95.2906036376953 91.6535034179688 87.8984985351562 85.7268981933594 83.7605972290039 83 80 78.8621978759766 79.8426971435547 77.1383972167969 75.7583999633789 74.8948974609375 70.4545974731445 69.0785980224609 68.0681991577148 70.0597991943359 71.1075973510742 69.0997009277344 66.1455993652344 70 63 60 58 53 57 55 54
144.434005737305 144.434005737305 144.828002929688 144.695999145508 143.307006835938 133 131.22900390625 132 132.682998657227 129.873001098633 126 128 124.949996948242 123.03099822998 122.016998291016 123 120 123.983001708984 122.86799621582 121.960998535156 117.157997131348 120.862998962402 117.946998596191 116 112.077003479004 111.362998962402 112 111.880996704102 110.86499786377 108.600997924805 122.333999633789 110 103.000999450684 102.781997680664 112 108.252998352051 115.730003356934 99.575798034668 101.009002685547 107.535003662109 110.565002441406 106.40599822998 101.247001647949 93.3911972045898 93.3196029663086 88.7079010009766 88.7345962524414 81.9601974487305 79.4307022094727 82.2331008911133 79 79.2972030639648 78.8702011108398 74.1116027832031 75.8077011108398 67 72.7919998168945 78.7658004760742 71.9497985839844 71 72.838996887207 71.2323989868164 67 62 59 58 55 63 60 58
153 146.863006591797 142 144 145.304992675781 144.406005859375 125 132 135.738006591797 130 130.90299987793 126.071998596191 128 126.938003540039 124.983001708984 122.00700378418 127.982002258301 124.88200378418 121 120.960998535156 119.946998596191 119 120.818000793457 117.629997253418 116 116.792999267578 114.76000213623 111.863998413086 112.693000793457 114 116.809997558594 110.627998352051 102.541999816895 102.249000549316 112 110.28800201416 108.073997497559 101.329002380371 100.981002807617 98.1600036621094 106.430000305176 105 99 97.3416976928711 94.7472991943359 90.8563003540039 84.4830017089844 83.5343017578125 80.6238021850586 84.4473037719727 82.6484985351562 81.8591003417969 82 77.8963012695312 74.1754989624023 74.0731964111328 76.2427978515625 77.1503982543945 75.9169006347656 77.7871017456055 75.8425979614258 65.0602035522461 62 58 53 58 59 60 60 60
152.526000976562 148 149.774993896484 143 145.516998291016 144.735992431641 143.548004150391 128.860000610352 133.156005859375 130 133.421005249023 136.572998046875 128.901992797852 126.970001220703 126.032997131348 126.003997802734 127.027000427246 124 122.863998413086 123.88200378418 122.838996887207 122.721000671387 118 116.248001098633 114.901000976562 112.34700012207 111 109 110.343002319336 108.616996765137 109.513000488281 107.234001159668 103.234001159668 100 105 113.031997680664 104.309997558594 100.263999938965 99.5137023925781 96 99.1501007080078 92.7901992797852 93.6348037719727 91 91.3850021362305 89.4409027099609 89.2426986694336 80.4533004760742 81.6047973632812 82.6447982788086 80.6212997436523 79.5977020263672 83.4272003173828 79.0964965820312 78.0804977416992 77.065803527832 80.8933029174805 77.0426025390625 79.9658966064453 75.9721984863281 73 70.0224990844727 68 53 59 63 63 66 62 62
154.47200012207 148 150.613998413086 146.968994140625 146.792007446289 144.475006103516 141.447998046875 143.055999755859 134.533996582031 130 127.19100189209 130.789001464844 132.854995727539 129.029998779297 132.983993530273 133.003997802734 127.990997314453 125 126 125.879997253418 122.837997436523 118.28099822998 116.073997497559 110.271003723145 113.783996582031 112.621002197266 107 107 107.564002990723 105.629997253418 106 102 101 103.389999389648 100 114 107.485000610352 101.403999328613 98 98.097900390625 94.4201965332031 94.3907012939453 91.3606033325195 91.6630020141602 90.6974029541016 87.2743988037109 84 85.5577011108398 84.8041000366211 80.3435974121094 81.2529983520508 79.8720016479492 83.3495025634766 82 79.2221984863281 76.1781005859375 80.8592987060547 83.9637985229492 83.1376037597656 75.0213012695312 73.0173034667969 68.0158996582031 60 65 66 63 63 69 63 62
155 155 149.462997436523 148.682998657227 144.901000976562 144.522994995117 143 140 129.313003540039 130.246002197266 130 131.930999755859 129.904998779297 133.029006958008 131.983993530273 131.024002075195 127.98999786377 129.945999145508 127 119.081001281738 122.16300201416 119.070999145508 118.160003662109 116.611000061035 116.767997741699 113.592002868652 112.684997558594 110.536003112793 108 108 106.248001098633 103.723999023438 101.602996826172 103.015998840332 105.291999816895 105.525001525879 105.592002868652 101 99.4788970947266 96.8955001831055 96.5831985473633 96.6134033203125 93.1378021240234 91.3450012207031 90.2984008789062 90.6494979858398 87.2426986694336 86.2165985107422 83.8087997436523 82 80.855598449707 80.2459030151367 79.1032028198242 83.4905014038086 82.9309005737305 74.8916015625 82.1247024536133 82.0614013671875 82.9337005615234 74.0158004760742 69.0238037109375 67 66 69 67 66 66 65 63 62
159.531005859375 155.574996948242 150.764007568359 149.042007446289 147 146.259994506836 143 140.186004638672 144 139.632995605469 133.906005859375 127.930999755859 138.906005859375 133.970993041992 134.014999389648 131.988006591797 127.079002380371 128.035995483398 122.02799987793 125 121.944999694824 121.070999145508 113 116.30899810791 116.38500213623 113.71199798584 112.333000183105 110 109.786003112793 108.238998413086 106.938003540039 105 105 104 100 100 103.567001342773 101.077003479004 111.953002929688 99.5550003051758 94.4139022827148 95.7670974731445 89.6467971801758 87.3515014648438 87.8851013183594 90.466796875 89 88 85.4380035400391 82.3478012084961 79.7191009521484 85.4059982299805 80.0994033813477 73 78.741096496582 79.0498962402344 75.8887023925781 81 78 77.9885025024414 66.9925003051758 65.006103515625 71 69 70 68 67 67 68 63
164.466995239258 160.845993041992 150.524002075195 149.64599609375 147.296997070312 141 147.677993774414 143.369995117188 142.302993774414 143.274993896484 139.557006835938 136.067993164062 132.908004760742 131.113006591797 135.955993652344 134.013000488281 132.009994506836 130.054992675781 124.971000671387 126.958999633789 124.833999633789 121.928001403809 119.176002502441 115.213996887207 117.127998352051 118.700996398926 110.519996643066 108.986000061035 110.777000427246 109.746002197266 111.170997619629 108.694999694824 106 104 104.782997131348 102 101.902000427246 101.517997741699 100.473999023438 107.529998779297 96.0586013793945 96.4748001098633 93 86.2853012084961 93 87.5279998779297 91.2910003662109 82 89.8154983520508 83.8398971557617 81 83 78 72.3112030029297 82.9384002685547 76.1865997314453 79.1023025512695 84.7911987304688 77.0290985107422 74 75.9742965698242 75 73 71 70 72 71 71 68 64
165.39599609375 159.421997070312 156.242004394531 152.651000976562 147.296005249023 149 146.656997680664 146.632995605469 145.300994873047 146 139.632995605469 142.59700012207 133 133.082992553711 138.942001342773 130.013000488281 131.009994506836 128.018997192383 128.087005615234 123.249000549316 125.832000732422 121.928001403809 119.721000671387 119.560997009277 119.475997924805 111.918998718262 111.531997680664 113.200996398926 110.543998718262 108 110.282997131348 110.375999450684 108 104 107 106.136001586914 106.612998962402 105.026000976562 105.472999572754 102.44100189209 101.410003662109 97.7594985961914 96.3491973876953 94 90.709602355957 91.5244979858398 88.7655029296875 89.2081985473633 87 86.841796875 87.5925979614258 81 80.7173004150391 80.7727966308594 73 84.1791000366211 81.9680023193359 79.0843963623047 77 77.9875030517578 78.9933013916016 75 73 71 69 72 74 69 67 63
165.317001342773 162.419998168945 158.621994018555 152 148.294998168945 147.255004882812 146.216995239258 144.548004150391 146.149002075195 146.356994628906 141.091003417969 137.132995605469 139.910003662109 130.399993896484 137.957992553711 132.009002685547 132.968002319336 129.018997192383 133.882995605469 125 128.111999511719 125.781997680664 121.636001586914 121.332000732422 120.263000488281 118.616996765137 120.179000854492 115.796997070312 115.082000732422 111.744003295898 110 111.94100189209 111.656997680664 109 108.38500213623 106.870002746582 107.863998413086 109.005996704102 106.47200012207 102.880996704102 103 101.758003234863 99 94.6810989379883 88 90.2613983154297 90.2337036132812 89.2073974609375 89 88.7864990234375 82.4047012329102 81.8868026733398 81.1866989135742 74.1496963500977 77.0587997436523 85.9561004638672 82 83.9591979980469 75.0700988769531 77 75.9985961914062 74 72 69 74 73 73 73 69 70
170 162.744995117188 160 155.332000732422 151.414001464844 151 148.134994506836 147.819000244141 141.593002319336 143.235992431641 143.639999389648 143 138.910995483398 137.945999145508 136.014007568359 137.018997192383 130.957000732422 130.057998657227 131.910995483398 129.212005615234 127 124.072998046875 117.091003417969 118 117.602996826172 114.845001220703 120.462997436523 117.982002258301 114.460998535156 110.25700378418 109.429000854492 109.315002441406 116.34400177002 114.625999450684 115.19100189209 114.565002441406 116.932998657227 112.003997802734 106.943000793457 105 101.182998657227 99.3785018920898 93.6520004272461 93.3183975219727 92.4217987060547 90 91 87.793098449707 87.6372985839844 83.6854019165039 84.1344985961914 79.3386001586914 74.2790985107422 71 80.0586013793945 90.7379989624023 85.9067001342773 82 78.0115966796875 75.9733963012695 70.9985961914062 71 64 66 70 72 72 70 68 70
173.460006713867 166.416000366211 160 157.332000732422 152.292007446289 153.746994018555 148.214996337891 145.360000610352 145 143.117004394531 143 139.194000244141 137.781005859375 137 137.026000976562 136.985000610352 133.044006347656 133.960998535156 126 129.914993286133 126.170997619629 124.926002502441 120.092002868652 114 112.068000793457 109 114.359001159668 115.407997131348 107.460998535156 108.515998840332 108.286003112793 103 103.689002990723 114 124.379997253418 116.564002990723 110 107.997001647949 104.470001220703 98.8787002563477 92 97.4896011352539 94.3475036621094 94.318000793457 94 91.7816009521484 95.3014984130859 86.2065963745117 84.3619003295898 81 83.5973968505859 79 77.7209014892578 80.0746002197266 83.11669921875 81.0873031616211 84.8144989013672 79.9798965454102 75 74.0158996582031 74 74 71 68 67 67 67 66 69 68
175.542007446289 170 164.255004882812 158.662002563477 155 153.748992919922 150.214004516602 147.641998291016 143 142 142.824005126953 140.807998657227 137.957000732422 139.947998046875 139.897003173828 135.990005493164 134.966003417969 128.059997558594 131 125.085998535156 127.942001342773 124.148002624512 122.630996704102 117.223999023438 114.196998596191 108 111.180000305176 111.180999755859 108.768997192383 113.967002868652 107 103 103 103 110.810997009277 114.436996459961 109.935997009277 105.499000549316 104 97.4384002685547 98.592399597168 95.5084991455078 91 91.6351013183594 96.288200378418 101.26000213623 95 90.5876998901367 88 83.6867980957031 79 81 79.6289978027344 79.9256973266602 85.0582962036133 77 77.9384994506836 74 76.0114974975586 69 75.0014038085938 75 71 63 63 62 70 59 66 63
174 169 165.257995605469 161 154 153.001007080078 147.061996459961 148.822998046875 146.854995727539 141.539993286133 141 140.063003540039 138.126998901367 138 136 135 128 125.060997009277 126.092002868652 127.043998718262 125.942001342773 123 120.185997009277 120.887001037598 119.463996887207 112.314002990723 111.542999267578 108.793998718262 106.695999145508 109.482002258301 111.138000488281 103 103 103 103 114.875 114.531997680664 107 97.9389038085938 102.314002990723 94 92.6232986450195 93.6154022216797 95.048698425293 97.2878036499023 97.519401550293 96.5358963012695 89.4114990234375 88.722297668457 84 87.7329025268555 87 86.9075012207031 89.9260025024414 76.5933990478516 71.2162017822266 68 67.9203033447266 67.9887008666992 64.0052032470703 71.9960021972656 74 70 72 65 67 64 66 63 53
175 171.824005126953 166 160 155.287002563477 153.503005981445 149.634002685547 148.352005004883 144.567993164062 141.113998413086 140.345993041992 140.063003540039 140.832992553711 137.024993896484 136.024002075195 134.968002319336 130 130.938995361328 129.876007080078 129.781005859375 124.175003051758 121 130.718994140625 124.887001037598 122.730003356934 117 115 115.176002502441 112.766998291016 110.740997314453 105 107.682998657227 105.613998413086 103 103 110.876998901367 117.125 113 105.46900177002 102.563003540039 100.188003540039 92.6238021850586 102.346000671387 94.3165969848633 93.1493988037109 96.5185012817383 96.5367965698242 90.2053985595703 83.4593963623047 84.3116989135742 82 91.2238006591797 88.723503112793 89 81.7686004638672 87.0431976318359 73.0610961914062 81.0198974609375 76.9887008666992 68.0052032470703 69.0054016113281 73 74 67 54 66 69 59 46 43
176.093002319336 170.589996337891 164.36799621582 158.651992797852 155.714004516602 154 152 147.175003051758 144 142.113006591797 141.914001464844 140.061996459961 137.082000732422 135.024002075195 133.011993408203 134.97200012207 132 131.97900390625 126.09400177002 126.133003234863 126.11799621582 127.622001647949 126.281997680664 121.681999206543 121 121.842002868652 125.818000793457 119.414001464844 117.532997131348 116 110.846000671387 108 109.694000244141 110.376998901367 107.592002868652 112 110.060997009277 107.500999450684 108.872001647949 102 96.1885986328125 99 99 96.948600769043 96 89.0353012084961 91 87 86 89.6890029907227 85 92.8883972167969 94 96 92.9421005249023 89 85 82.0395965576172 80 75.9947967529297 72.9922027587891 62 60 64 65 60 66 45 55 60
177.64599609375 173.591995239258 167.731994628906 160.324996948242 159.283996582031 153.490997314453 148.207992553711 146.82600402832 144.565994262695 141.335998535156 141 141 141.878005981445 136.048004150391 137.942001342773 134.983001708984 133.988006591797 130.957992553711 129 131.820999145508 124.821998596191 123 131.337005615234 126 121.272003173828 121.158996582031 121.365997314453 123.208000183105 118.297996520996 119.738998413086 117.710998535156 112 112.695999145508 113.865997314453 113.592002868652 112.439002990723 110.411003112793 107.997001647949 96 105.690002441406 96 101.750999450684 104 92.684196472168 93.5728988647461 94.2248001098633 87.7692031860352 84.7949981689453 91.6410980224609 89.6205978393555 89 93.8887023925781 94.8162994384766 100.073997497559 91.0576019287109 87.0428009033203 81.969596862793 71.0588989257812 77 73 58.0026016235352 66 73 75 65 61 57 64 70 58
178.550994873047 181.593994140625 168 163.645004272461 158.151992797852 154 149.585998535156 148 146 145.110992431641 141.832992553711 139.878997802734 140.919998168945 135.022994995117 136.977005004883 134 135 129 131.031997680664 132.820007324219 129.820999145508 128.15299987793 124.190002441406 125.11499786377 121 124.88500213623 122.449996948242 119.791999816895 114 117.262001037598 119 116.403999328613 117.696998596191 119.621002197266 120 111.879997253418 114 104.487998962402 102.86799621582 115 105 100.375 102.310997009277 97.684700012207 95.713996887207 92.7739028930664 85.2304000854492 87.2045974731445 91 94.8451995849609 97.6025009155273 96.8889999389648 93.9084014892578 98.0735015869141 88 78.1713027954102 79.0301971435547 64.9804000854492 69.9554977416992 62.9948997497559 74.9974975585938 78 77 75 69 59 69 73 70 64
183 181.809997558594 170.363006591797 162.714004516602 158 153.729995727539 153 148.828994750977 144.580993652344 145.559005737305 138.248992919922 139 136.960006713867 137.022994995117 134.988998413086 133.005996704102 133.013000488281 136.871002197266 131.966995239258 129 128.119995117188 130 125.38200378418 131 127.588996887207 122.319000244141 122.446998596191 120.747001647949 121 118.21199798584 116.581001281738 118.319999694824 115.348999023438 119 121.228996276855 110 110.585998535156 109.005996704102 112.134002685547 105.129997253418 108.19100189209 101.122001647949 100 101.629997253418 101 97.7424011230469 88.4598999023438 97.7957992553711 98.1787033081055 100.690002441406 98.8677978515625 94.2219009399414 90.9086990356445 92.9268035888672 86 78 78 65 79.0222015380859 69.004997253418 78.9987030029297 79 74 65 72 70 77 71 71 60
186 183.789993286133 173 164.679992675781 160.279006958008 160.516998291016 153.205001831055 149.658996582031 144.585998535156 139.218002319336 136.246002197266 135.059005737305 132.960998535156 132.977005004883 137.968002319336 134.988006591797 135.013000488281 130.022003173828 132 135.229995727539 134.121002197266 131 128.710998535156 124.115997314453 116 122.358001708984 121.815002441406 119.417999267578 123.763999938965 123 121.291999816895 121.640998840332 122 121.140998840332 117.179000854492 113.11799621582 113.055999755859 113.484001159668 109 112.434997558594 108.807998657227 106.626998901367 103.313003540039 98.6278991699219 91 98.7701034545898 93 100 105.357002258301 106.69100189209 98.1317977905273 100.111000061035 100.091003417969 90.927001953125 77.8856964111328 79.9576034545898 70.8498992919922 74.9609985351562 82 82 78.9988021850586 80 78 78 76 74 65 66 65 52
193 183 176 174 168 161 155.593994140625 152.324005126953 143.274002075195 140.108001708984 137.755996704102 133.057998657227 131.809997558594 131.065994262695 131.031005859375 133.018997192383 134.013000488281 130 128.132995605469 133.093002319336 130.878005981445 128.389999389648 128.710006713867 122.766998291016 122.723999023438 117.805999755859 121.555999755859 122.790000915527 124.472999572754 124.208999633789 123.416000366211 123.963996887207 122.052001953125 122.380996704102 116.767997741699 114.442001342773 129.253997802734 119.008003234863 109.791000366211 111.13200378418 108.208999633789 105.119003295898 102.685997009277 95 102.714996337891 101.255996704102 98 104 102 101.846000671387 100.603996276855 97.1103973388672 104.180999755859 91.0727005004883 85 73.127197265625 73 84.0193023681641 85.9889984130859 79.9951019287109 79.9988021850586 78 79 76 66 63 63 47 56 51
198 187 182 177 170 161 153 149 146 139 134 131 133 133 130.001998901367 131.033004760742 132.039993286133 129.955001831055 131.932998657227 143.718994140625 132.815002441406 129.921005249023 127.09700012207 126.648002624512 119.97200012207 126 123 126.36799621582 122 124.528999328613 123.414001464844 126.321998596191 122 116.144996643066 117.235000610352 113.443000793457 121.688003540039 117.504997253418 117.464996337891 104.133003234863 105.792999267578 97 101.684997558594 103.625999450684 99 102.486999511719 98 92 95.8224029541016 100.306999206543 102.13200378418 94.1100006103516 92.818603515625 87.8545989990234 86 74 75.0298004150391 79.9807968139648 84.9782028198242 83 78.0011978149414 81 78 68 59 51 64 64 57 43
205 197 188 178 173 164 153 146 148 140 132 126 129 132 130.998001098633 131 128.041000366211 134.977005004883 132.033996582031 133.046997070312 130.876007080078 127.236999511719 128 131.64599609375 118.557998657227 126 121.559997558594 122.578002929688 125 122.264999389648 123.707000732422 116.611999511719 118.295997619629 119.61799621582 118.236999511719 119.338996887207 119 119.453002929688 111.142997741699 111.13500213623 108.597999572754 108.372001647949 102.657997131348 107 104.431999206543 106 97.6849975585938 93.4051971435547 97.8224029541016 95.8466033935547 92.8687973022461 93.779899597168 91.1808013916016 83.7826995849609 76.8300018310547 84 84.0297012329102 85.9807968139648 85.021598815918 81.9853973388672 78.9975967407227 74 77 71 58 68 75 72 64 56
216 207 189 180 173 160 156 151 142 137 128 127 128 129 128 129 130 135.022994995117 133 127.047996520996 130 126.398002624512 129.098007202148 127.527000427246 126.139999389648 127.488998413086 124.186996459961 131.304000854492 128.238006591797 124.734001159668 120.411003112793 118.939002990723 120.648002624512 117.148002624512 111.41300201416 110.555999755859 115.474998474121 114.988998413086 112 108.431999206543 104.795997619629 103.628997802734 108.681999206543 108.311996459961 108.849998474121 105.254997253418 101.543998718262 103 98.1772003173828 88.4589996337891 91.1307983398438 90.8902969360352 80.8191986083984 81.9278030395508 86.1692962646484 85 84.9702987670898 88.9618988037109 85 76.9951019287109 66.0022964477539 64 63 71 59 76 73 71 70 61
239 209 194 178 172 159 152 151 143 138 132 128 125 127 127 127 130 131 130 126 128 130 124 125 125 118 124 129 120 119 124 124 119 116 115 110 111 110 110 110 111 113 106 108 114 101 104 106 105 96 94 94 90 89 89 88 87 78 75 75 78 79 76 78 79 84 69 63 59 56
252 213 194 183 173 167 153 149 145 141 132 128 129 126 124 125 127 125 129 131 129 129 128 124 124 124 123 120 127 130 126 120 108 120 113 109 113 113 116 110 111 111 106 109 104 90 102 104 101 101 97 97 93 84 90 87 80 76 77 76 78 81 78 76 74 77 73 62 65 57
246 224 204 185 173 163 161 152 148 139 138 130 131 122 122 127 124 131 131 126 128 133 131 128 127 129 116 112 116 128 119 118 118 118 111 113 116 113 114 108 109 104 109 101 98 99 86 84 92 100 101 94 92 92 90 84 83 82 83 80 78 84 81 74 62 75 63 52 61 56
254 242 217 185 173 168 163 155 151 144 139 133 132 128 131 124 120 126 128 128 119 126 127 128 129 120 128 118 126 124 126 116 122 123 123 115 113 114 112 108 107 109 109 104 103 108 84 84 87 103 104 94 94 90 89 87 88 80 83 82 81 76 71 67 55 64 68 62 51 53
